-1.64808 -0.935046 4.04235 21 28 28
-1.63763 -0.760742 4.13557 13 20 22
-1.62804 -0.586492 4.23182 29 30 26
-1.61628 -0.409792 4.32321 7 12 16
-1.60568 -0.23258 4.41791 28 32 34
-1.59508 -0.0543685 4.51182 7 10 14
-1.67746 -0.846212 3.86971 12 18 19
-1.66691 -0.671843 3.96245 28 31 29
-1.65572 -0.496934 4.05515 15 16 17
-1.64473 -0.320157 4.1471 30 28 25
-1.63551 -0.142386 4.24339 18 13 14
-1.62329 0.0360317 4.33406 34 33 30
-1.7068 -0.756877 3.69582 27 31 30
-1.6945 -0.582275 3.78595 10 16 19
-1.68502 -0.406571 3.87996 30 30 30
-1.67531 -0.229737 3.97439 13 14 17
-1.66264 -0.0527518 4.0636 36 33 32
-1.65364 0.126096 4.15942 9 16 15
-1.73465 -0.667171 3.51988 10 18 20
-1.72577 -0.49329 3.6148 28 30 30
-1.71453 -0.316785 3.70502 14 16 18
-1.70464 -0.140411 3.79906 30 30 30
-1.69401 0.037468 3.89121 10 16 18
-1.68255 0.21616 3.98269 33 32 32
-1.7665 -0.578387 3.34857 24 30 30
-1.75616 -0.403326 3.44132 13 18 20
-1.74399 -0.227428 3.52998 28 28 27
-1.73296 -0.0499613 3.62072 8 12 16
-1.72296 0.12806 3.7135 30 31 32
-1.71109 0.306784 3.80316 6 12 14
-1.79449 -0.488563 3.17359 12 18 18
-1.7824 -0.313997 3.26406 29 30 30
-1.77218 -0.136908 3.35307 8 14 15
-1.76281 0.0399478 3.4458 26 29 29
-1.75032 0.218171 3.53391 8 14 18
-1.74074 0.397207 3.6274 30 32 31
-1.82233 -0.399679 2.99996 25 31 28
-1.81097 -0.22409 3.09002 10 17 18
-1.80098 -0.0477641 3.17816 24 26 26
-1.79153 0.129246 3.26912 5 10 13
-1.77996 0.307705 3.35832 24 30 28
-1.76931 0.486833 3.44888 8 11 14
-1.85108 -0.310225 2.82458 11 14 18
-1.83905 -0.134549 2.91327 20 24 24
-1.82767 0.0417936 3.00355 8 12 14
-1.81413 0.219633 3.09016 20 24 24
-1.80583 0.397778 3.18179 4 11 12
-1.797 0.57697 3.27191 21 25 24
0.506991 -1.32684 4.49032 18 14 13
0.522382 -1.14633 4.58917 21 18 15
0.538233 -0.965568 4.68841 18 15 14
0.553665 -0.784697 4.79553 27 20 18
0.569785 -0.600674 4.8952 22 19 16
0.586256 -0.416558 4.99634 24 16 14
0.301674 -1.32354 4.51362 20 14 14
0.316941 -1.14463 4.61245 22 18 16
0.331113 -0.963866 4.71468 24 19 18
0.346624 -0.782325 4.81318 20 19 18
0.36174 -0.598121 4.91073 25 18 16
0.37716 -0.416456 5.02159 22 18 18
0.0987814 -1.31769 4.53008 18 16 14
0.112978 -1.14197 4.63503 22 16 16
0.127589 -0.961171 4.73157 19 15 15
0.141646 -0.779937 4.82978 24 19 19
0.156304 -0.597909 4.93403 21 18 15
0.17099 -0.414981 5.03659 23 16 16
-0.102172 -1.31444 4.55087 16 14 14
-0.0882643 -1.13658 4.64884 18 16 16
-0.0748745 -0.957704 4.74613 19 16 16
-0.0615872 -0.776611 4.84572 20 16 16
-0.0474703 -0.59619 4.94904 25 18 17
-0.0338453 -0.413227 5.04892 23 19 18
-0.301725 -1.31052 4.57051 20 16 17
-0.288829 -1.13309 4.66755 22 17 18
-0.276486 -0.956043 4.76983 16 14 14
-0.262923 -0.775868 4.86924 25 17 18
-0.24938 -0.59476 4.9661 22 20 17
-0.236223 -0.413347 5.06638 21 18 16
-0.500009 -1.30698 4.59201 18 16 16
-0.487674 -1.13025 4.68881 20 15 16
-0.47482 -0.951778 4.78341 21 18 18
-0.462872 -0.773153 4.88506 19 16 16
-0.450534 -0.592911 4.98429 24 18 18
-0.438299 -0.412588 5.08769 10 16 17
-0.69496 -1.30152 4.60606 20 16 14
-0.684594 -1.12665 4.707 18 16 16
-0.672592 -0.949468 4.80439 15 15 14
-0.660972 -0.770901 4.90293 16 16 16
-0.648497 -0.591061 4.99794 16 18 16
-0.635781 -0.410708 5.09639 20 20 22
-0.889601 -1.29736 4.62587 16 14 14
-0.881019 -1.12456 4.73128 14 16 15
-0.869031 -0.946527 4.82337 18 16 16
-0.858202 -0.768364 4.92011 16 16 16
-0.845536 -0.589249 5.01526 21 18 18
-0.834045 -0.409669 5.11395 15 16 17
-0.789634 0.255282 4.86951 16 14 14
-0.822911 0.346163 4.69195 44 50 52
-0.85614 0.437276 4.50976 28 24 20
-0.889215 0.528376 4.33105 56 56 60
-0.922011 0.618951 4.14893 34 34 30
-0.953903 0.710139 3.96907 50 60 64
-0.590266 0.257136 4.84885 44 44 48
-0.625127 0.348343 4.67215 26 22 21
-0.657566 0.439669 4.49078 51 52 54
-0.691081 0.531509 4.30978 32 28 25
-0.722507 0.622204 4.12446 60 60 60
-0.754984 0.713194 3.94264 38 36 30
-0.392 0.259036 4.84005 24 19 18
-0.423992 0.351049 4.65138 51 50 51
-0.457738 0.443187 4.4701 29 26 22
-0.490385 0.534698 4.28806 52 57 56
-0.52392 0.626749 4.10612 37 38 36
-0.555239 0.71736 3.9206 61 66 66
-0.188248 0.259486 4.81561 42 44 42
-0.222653 0.352515 4.63439 28 26 24
-0.254972 0.44409 4.44605 52 53 53
-0.288801 0.538299 4.26623 34 33 30
-0.321462 0.630782 4.08474 59 62 60
-0.353984 0.722347 3.89957 44 40 36
0.0156489 0.264134 4.79595 28 22 20
-0.01727 0.356672 4.61412 48 46 46
-0.0519592 0.449793 4.4342 32 30 25
-0.0837215 0.541751 4.24213 54 58 59
-0.117272 0.635263 4.06119 40 40 39
-0.149662 0.727138 3.87516 70 61 57
0.222602 0.266563 4.77922 38 39 42
0.187903 0.359908 4.59361 32 32 28
0.154998 0.45309 4.40975 50 50 50
0.121307 0.545747 4.21975 43 36 31
0.088479 0.639678 4.03733 66 62 56
0.0555095 0.732036 3.8502 46 46 42
0.430379 0.268524 4.75553 32 28 24
0.396846 0.362436 4.56976 46 48 47
0.362541 0.456486 4.38766 37 35 31
0.32926 0.550288 4.19943 56 54 52
0.295511 0.644031 4.01259 52 44 42
0.262141 0.737376 3.82725 67 61 60
0.64095 0.271385 4.7356 40 38 39
0.606537 0.365605 4.55179 39 36 32
0.572539 0.460026 4.35959 51 50 50
0.53845 0.554641 4.17605 46 42 38
0.505232 0.64883 3.98733 60 56 54
0.47154 0.742513 3.80238 54 49 44
