0.534149 -1.51758 2.75666 71 84 88
0.549315 -1.5106 2.74833 74 84 88
0.59561 -1.52355 2.777 0 0 0
0.605395 -1.51479 2.78511 74 86 88
0.651489 -1.51163 2.80079 74 82 90
0.68652 -1.50689 2.8151 0 2 0
0.620702 -1.49747 2.79991 36 54 61
0.450783 -1.46249 2.75781 66 82 82
0.665328 -1.48545 2.81947 70 83 84
0.367203 -0.814149 1.64232 39 47 44
0.225803 -0.523338 1.04155 38 42 46
-0.405355 -1.14357 2.31858 83 100 117
-0.509638 1.58943 4.3031 100 99 93
-0.589038 1.60736 4.29444 53 26 34
-0.66368 1.61101 4.27041 17 0 0
-0.487147 1.62041 4.32627 92 98 80
-0.452072 1.67398 4.36262 128 126 126
0.578018 -1.51989 2.77178 77 80 84
0.556664 -1.50812 2.77155 0 16 6
0.588922 -1.50898 2.78119 0 0 0
0.452208 -1.48154 2.74463 0 0 0
0.43555 -1.47045 2.74362 76 83 88
-0.351951 -1.22864 2.28666 92 112 124
0.649286 -1.48786 2.81454 0 0 0
0.429752 -1.45195 2.75391 0 0 0
0.547085 -1.47056 2.79115 37 66 72
-0.413792 -1.18764 2.24224 0 22 11
-0.396097 -1.19138 2.26745 66 74 78
0.403001 -1.43186 2.75608 77 83 89
-0.426013 -1.17077 2.2446 72 78 82
-0.400221 -1.18183 2.273 67 78 80
0.524454 -1.44046 2.79708 0 0 0
-0.403615 -1.16795 2.2909 0 2 0
-0.299828 -1.21043 2.39051 66 72 76
-0.325123 -1.23162 2.44125 28 40 38
0.480544 -1.34451 2.65575 34 42 41
-0.26108 -1.21524 2.43263 61 71 73
-0.254966 -1.20763 2.44924 0 14 8
-0.285691 -1.18369 2.4384 5 17 2
-0.246808 -1.19514 2.47097 0 11 4
-0.0940311 -1.23332 2.59089 63 76 80
-0.11202 -1.21884 2.58822 1 10 4
-0.145119 -1.19476 2.57555 0 2 0
0.565021 0.0134922 -3.38632 0 0 0
0.566567 -0.0342676 -3.39353 64 62 60
0.212594 -0.0494035 -4.37863 2 0 0
0.258728 -0.0818591 -4.37132 0 0 0
-0.146273 -0.124394 -6.11618 74 72 68
0.454819 -0.110696 -3.30772 66 68 64
0.45638 -0.155159 -4.55494 6 2 2
0.16551 -0.226108 -6.39932 5 4 2
0.724485 -0.188854 -4.68187 74 70 69
0.507435 -0.187779 -4.56644 6 2 1
0.273974 -0.400957 -6.66381 3 2 0
-0.0528738 -0.404968 -6.57237 86 82 78
-0.0430296 -0.459757 -6.63151 6 2 1
0.57279 -0.40869 -4.73612 5 3 2
0.385186 -0.43787 -4.59966 87 84 80
-0.0108175 -0.685457 -7.01263 92 88 83
-0.0681139 -0.689967 -7.02824 8 6 3
0.903274 -0.567731 -4.9837 12 9 8
0.9679 -0.607412 -5.02697 16 10 9
0.845483 -0.931325 -7.54353 15 8 8
0.783013 -0.942731 -7.58839 97 94 90
-0.0338626 -0.973752 -7.52375 101 96 92
1.00755 -0.752057 -5.14965 97 94 92
0.725336 -0.744338 -4.99617 10 11 8
0.965349 -1.18179 -7.97716 10 10 6
0.00695413 -1.34257 -8.19924 13 12 9
-0.484743 1.57915 4.30282 20 22 24
-0.520812 1.59828 4.30425 93 96 86
-0.451551 1.59313 4.31709 99 98 101
-0.703772 1.63161 4.26899 122 117 119
-0.541307 1.63416 4.31687 4 1 0
0.637668 -1.51743 2.79406 0 9 2
0.433133 -1.47216 2.74293 74 84 88
-0.351583 -1.22763 2.28938 104 120 128
0.430253 -1.4502 2.75564 0 0 0
-0.410926 -1.18744 2.24645 0 27 16
-0.396856 -1.18917 2.26869 62 72 77
0.526624 -1.43961 2.79778 0 0 0
0.500521 -1.42883 2.79136 52 60 56
0.402087 -1.40794 2.76163 44 42 42
-0.40254 -1.1657 2.29934 0 5 0
-0.298814 -1.209 2.39251 60 66 72
-0.318864 -1.19947 2.37627 0 14 4
-0.388361 -1.16194 2.32339 98 101 114
-0.254208 -1.20516 2.45311 0 16 8
-0.303102 -1.17899 2.42189 60 69 72
-0.248377 -1.19497 2.46365 0 9 1
-0.334913 -1.15167 2.41227 0 14 2
0.707246 0.522663 -1.24861 32 46 44
-0.0741725 -1.2325 2.6048 0 12 3
-0.111917 -1.21798 2.5873 1 10 4
-0.119614 -1.20729 2.58754 0 4 1
-0.360449 -1.10248 2.43305 64 70 75
-0.68104 -0.871806 2.49516 0 0 0
-1.20376 -1.01906 3.16506 0 0 0
0.132295 -0.234775 1.0534 57 54 54
0.0819842 -0.248995 1.12508 54 54 54
0.0021192 -0.352669 1.70054 56 50 52
0.423399 0.505199 -5.46305 0 0 0
0.339206 -0.345446 3.83922 0 0 0
0.56862 0.0106245 -4.55098 0 0 0
-0.170705 0.00673156 -5.94228 3 0 0
0.623894 -0.00279805 -0.806105 0 0 0
-0.106569 -0.0712129 -6.07843 69 70 67
0.323629 -0.0298468 -3.23896 1 1 0
-0.153966 -0.0547641 -4.75528 71 70 65
0.218482 -0.0896567 -4.39678 72 70 68
-0.0228921 0.127951 2.08441 2 2 2
-0.54681 0.355626 3.85452 6 3 3
-0.0793298 -0.706447 -7.08822 4 4 2
0.440813 -0.720971 -4.7799 95 94 91
1.98864 -1.00696 -6.84986 8 8 4
0.0729229 -1.22569 -7.98201 12 9 6
-0.0118469 -1.23497 -7.98538 96 102 97
-0.699329 1.06527 6.80297 8 7 6
0.738839 -0.795685 -5.0306 99 96 93
0.925589 1.21838 7.12841 112 106 102
0.863505 -0.957929 -5.17604 8 8 6
-0.0754686 0.29606 1.5062 8 4 4
-0.400287 -1.16854 2.29374 0 4 0
-0.319432 -1.20111 2.37444 0 16 5
-0.379932 -1.16917 2.32652 102 104 117
-0.332848 -1.15241 2.41412 0 14 2
-0.357184 -1.10593 2.43549 57 66 72
0.515245 -1.15808 2.84182 0 0 0
0.359976 -1.40179 3.47217 0 0 0
0.211645 -1.36405 3.37547 0 0 0
-1.1984 -1.01681 3.17137 0 0 0
-0.45244 -0.67705 2.13344 0 0 0
-0.639138 -0.765842 2.48998 0 0 0
-0.662109 -0.603838 2.58185 46 52 54
0.0750379 -0.192183 1.02288 1 0 0
0.457433 0.805215 -5.01934 51 42 41
0.269637 0.423236 -3.16032 52 44 43
0.345672 0.383405 -3.23668 0 0 0
0.473097 0.403589 -4.25564 0 0 0
0.414194 0.515502 -5.44857 0 0 0
0.319107 0.336235 -3.59232 0 0 0
-0.0880397 0.417983 -4.3572 0 0 0
-0.280534 0.451302 -4.66636 0 0 0
-0.385508 -0.191676 2.15693 0 0 0
-0.617828 -0.121752 2.73058 0 0 0
0.0794529 -0.0257195 1.03092 0 0 0
-1.30231 -0.0268815 3.25855 0 0 0
0.189979 -0.00202241 0.480375 1 0 0
-1.89454 -0.00871599 4.11892 40 50 50
0.827518 0.00178679 -4.69043 0 0 0
0.429136 -0.000339167 -4.47222 0 0 0
0.183769 0.000620404 -4.34398 0 0 0
0.157322 -0.00579335 -6.10012 0 0 0
-0.177298 -0.00595951 -5.94288 1 0 0
0.112664 -0.00223182 -4.18498 1 0 0
-0.259272 -0.00412781 -5.01496 1 0 0
0.550208 -0.0241975 -3.38374 68 65 64
0.653131 -0.0301514 -4.57795 67 60 62
0.583655 -0.0324376 -4.54701 0 0 0
0.387085 -0.0360639 -4.46001 73 66 67
0.258076 -0.0330763 -4.34975 72 62 60
0.365479 -0.047115 -6.18755 1 0 0
0.0954703 -0.0543703 -6.10969 75 68 69
-0.0873526 -0.0521203 -6.00879 70 64 62
-0.173539 -0.0542444 -6.02033 1 0 0
-2.10483 0.0916687 4.43989 47 48 50
-0.114875 -0.0384322 -4.55373 76 70 66
-0.209453 -0.0419826 -4.7552 1 0 0
0.685763 -0.0976843 -4.64419 0 0 0
0.478921 -0.0975946 -4.52222 77 67 64
0.413132 -0.101258 -4.50583 1 0 0
0.276792 -0.0970652 -4.39192 0 0 1
0.116809 -0.14721 -6.2725 2 1 0
-0.0771306 -0.143429 -6.15813 2 0 0
-0.0541332 -0.095507 -4.23015 0 1 0
0.643434 -0.139341 -4.63723 71 71 70
0.50164 -0.135342 -4.54561 74 71 68
0.294455 -0.135526 -4.41338 4 2 1
0.233001 -0.197189 -6.33429 77 75 71
0.67637 -0.208356 -4.68897 4 2 2
0.0026826 0.120211 2.00681 2 1 1
0.193316 -0.381014 -6.61864 89 81 79
0.820036 -0.32672 -4.80841 0 2 0
0.516603 -0.327183 -4.66138 0 0 0
0.356822 -0.319265 -4.53436 4 0 0
-0.0196234 -0.48569 -6.68753 4 2 0
0.788693 -0.393966 -4.83171 84 84 82
-0.101568 -0.602074 -6.89981 90 87 82
0.901074 -0.465203 -4.9191 88 86 86
0.0143744 -0.713227 -7.07356 106 90 84
-0.0885587 -0.72196 -7.09254 9 4 2
-0.878288 0.536128 4.86715 5 8 8
0.87693 -0.549743 -4.95649 10 8 8
0.62049 -0.546655 -4.83027 100 89 84
0.717169 -0.839711 -7.41703 13 9 9
0.328892 -0.862273 -7.44045 101 93 88
0.0374161 -0.860107 -7.33641 98 94 90
-0.0711042 -0.87517 -7.38335 14 10 7
0.793125 0.293975 2.16878 108 98 96
0.723033 -0.617921 -4.89728 91 90 86
1.26177 -0.734337 -5.23231 9 9 8
1.70798 -1.0241 -7.36355 10 8 6
0.981096 -0.732869 -5.12188 98 95 89
0.775174 -0.720943 -4.98902 102 94 90
0.701309 -0.726911 -4.97858 8 8 6
0.496855 -0.708387 -4.79781 12 8 6
0.422449 -1.20822 -8.08733 10 11 8
-1.41803 0.91146 6.04625 8 5 4
-0.0329711 -1.22573 -8.01862 108 97 93
1.10524 -0.81369 -5.22167 100 98 90
0.808453 -0.802449 -5.05071 14 8 6
1.12865 0.900102 5.51549 12 10 8
0.585489 -1.35263 -8.32372 14 10 8
0.0924862 1.21158 7.29759 108 102 96
0.104695 -1.37029 -8.2502 102 103 96
0.869183 -0.941542 -5.16339 8 6 5
0.417436 1.64669 8.53201 10 11 8
-0.250041 -1.20052 2.46188 2 26 16
0.634889 -0.00222814 -0.874818 0 0 0
-0.506895 -0.0572187 -5.43774 2 0 0
0.436259 -0.139977 -4.52889 4 2 0
0.140858 -0.203515 -6.34098 3 2 0
-0.0626266 -0.200591 -6.23488 4 2 2
0.234283 -0.0872064 -2.92427 4 3 2
0.0273269 -0.115838 -3.73069 6 2 1
0.461602 -0.207149 -4.5783 83 72 71
-0.331668 -1.15211 2.41961 0 12 2
0.369775 -0.313151 0.511539 36 48 48
-0.130901 -1.20724 2.5975 0 4 3
0.352222 -1.39683 3.4829 0 0 0
0.204049 -1.35751 3.3821 0 0 0
0.426881 -1.33914 3.63041 53 46 44
0.0114189 -1.36099 3.75513 45 38 38
0.362496 -1.28393 3.69482 50 40 40
-0.44172 -0.727159 2.04576 0 0 0
0.0981265 -1.28727 3.73611 48 42 42
0.203739 -1.26526 3.63981 46 40 42
-0.668312 -0.866442 2.4997 0 0 0
-0.397972 -0.636146 1.99216 0 0 0
-0.642199 -0.779686 2.50951 0 0 0
0.100163 -1.18096 3.99333 0 0 0
-0.924298 -0.868358 2.94208 46 54 54
-0.627925 -0.731515 2.51147 47 52 52
-1.00669 -0.860491 2.99643 0 0 0
-0.728137 -0.744597 2.62911 1 1 0
-1.21983 -0.87739 3.37583 40 52 53
0.361427 -0.877148 3.52413 0 0 0
0.14309 -1.08731 4.40094 0 0 0
-1.69053 -0.840321 3.72166 46 51 52
0.0152842 -1.00749 4.56103 0 0 0
0.604514 0.156903 -0.873363 0 0 0
0.417659 -0.896344 4.37495 0 0 0
-1.96182 -0.674328 3.42236 48 50 52
0.662876 0.207817 -1.33514 42 38 40
0.24032 -0.737936 4.63948 0 0 0
0.438005 -0.74273 4.62043 48 46 46
0.034295 -0.767588 4.82467 0 0 0
0.129166 -0.763208 4.77794 47 43 43
0.650085 0.202172 -1.43136 46 41 41
0.247974 -0.656342 4.82861 0 0 0
0.450896 -0.663647 4.82806 48 44 45
0.722959 0.231561 -1.86547 0 0 0
-0.495995 -0.308611 2.348 44 50 54
0.141866 -0.596451 5.03936 0 0 0
0.2557 -0.572907 4.88467 50 44 45
0.347226 -0.575213 4.86801 0 0 0
0.69892 0.212845 -1.95808 0 0 0
-0.351779 -0.245453 2.12335 1 0 0
3.21733 0.50044 -5.2288 45 50 50
2.9955 0.492051 -5.45763 52 51 52
0.718338 -0.497013 5.09689 0 0 0
0.714252 0.245511 -2.70471 0 0 0
0.177787 -0.0506368 0.754284 0 0 0
-0.607635 -0.130513 2.71265 0 0 0
2.93585 0.212746 -4.88039 0 0 0
-1.0355 -0.0944382 2.79283 0 0 0
-0.219403 -0.0703726 1.77616 46 52 56
-1.06531 -0.0910171 3.63674 50 54 56
-1.85257 -0.100854 4.61969 0 0 0
-2.25826 -0.0855113 4.49033 44 52 53
0.66591 -0.000845284 -1.05974 0 0 0
-0.261229 -0.0252626 -4.96986 0 0 0
-0.0689476 -0.0230486 -4.30968 73 67 66
-0.500026 -0.0329331 -5.44919 2 0 0
-0.950454 0.0737178 3.47953 0 0 0
0.370672 0.027578 0.640755 0 2 0
-2.26359 0.174818 4.97351 49 52 54
0.0680726 -0.16725 -3.19591 3 2 2
0.4151 -0.0603487 -1.02906 3 2 1
0.529637 -0.370647 -4.63784 2 2 2
0.231308 -0.557595 -6.80391 1 1 0
0.343151 -0.101611 -1.43186 92 96 94
1.22204 -0.250263 -2.13162 67 69 66
0.597401 -0.521211 -4.74404 92 88 84
-0.334414 -0.831836 -7.07932 10 8 6
1.33286 -0.341202 -2.56877 70 72 70
0.511137 -0.00110517 -0.2577 12 10 6
-0.816204 0.689279 5.43127 5 8 8
0.0728154 -1.04917 -7.7735 12 10 8
-1.19955 0.848792 6.16681 86 84 81
-1.11123 0.883045 6.31113 8 7 6
0.410491 -0.692632 -4.73744 100 92 88
-0.0508113 -1.17356 -7.83419 102 98 93
-1.29542 0.97173 6.27116 7 6 5
1.92234 -1.05561 -6.92434 90 90 86
1.7487 -1.10237 -7.18223 96 94 94
1.64219 -1.13801 -7.3282 8 10 8
-0.727696 1.07597 6.71313 8 8 6
-0.282322 1.17255 7.10777 9 9 7
0.624476 -1.4162 -8.55678 12 10 8
0.445158 -1.4362 -8.58148 104 100 96
1.48932 1.05534 5.71838 12 10 8
0.876366 -0.926492 -5.15875 8 7 4
0.683153 -1.60832 -8.76172 11 9 5
0.190097 -1.35116 3.40656 0 0 0
0.284052 -1.33729 3.57297 48 41 40
-0.53292 -0.726785 2.27952 0 0 0
0.418384 1.31194 -4.7055 0 0 0
-1.62467 -1.00277 3.488 0 0 0
-1.12021 -0.906931 3.16329 0 0 0
-0.818722 -0.771929 2.80237 0 0 0
-0.564674 -0.646213 2.42428 46 51 51
-1.34342 -0.845693 3.45153 0 0 0
0.178842 0.572492 -2.54205 54 42 40
0.318939 -0.986157 4.3379 52 46 46
0.271535 0.517126 -2.327 0 0 0
0.189779 -1.03124 4.51641 50 42 43
-1.55146 -0.822321 3.59398 50 52 54
-1.85242 -0.774075 3.50018 0 0 0
-1.78597 -0.791009 3.74108 0 0 0
-1.90808 -0.731488 3.45735 0 0 0
-1.8661 -0.767695 3.76296 0 0 0
0.392766 0.45455 -2.40883 1 0 0
0.270393 0.510158 -2.65058 51 44 42
-1.70025 -0.743817 3.86813 40 50 52
-1.94622 -0.713405 3.71416 41 50 52
0.34461 -0.787177 4.07418 1 0 0
-2.00068 -0.671256 3.66935 51 53 54
-0.422064 -0.379488 2.23726 46 48 50
0.0220556 0.538616 -3.51456 49 42 42
0.407157 0.769981 -5.16253 53 45 44
0.787645 0.233667 -1.81502 36 38 38
0.773108 0.282937 -2.15619 0 0 0
0.139838 0.4787 -3.31508 0 0 0
-0.254167 -0.268681 1.85472 0 0 0
0.700196 0.163194 -1.59735 46 42 42
0.574074 0.611624 -5.46388 51 42 40
0.383127 -0.576196 4.99622 48 42 42
0.578119 -0.560389 4.86537 52 44 44
0.898746 0.236956 -2.51635 0 0 0
0.76956 0.560916 -5.38235 0 0 0
0.371016 -0.519155 5.15296 0 0 0
0.394718 0.190972 -1.88279 0 0 0
-0.0924072 0.44087 -4.21721 0 0 0
-0.611872 -0.271214 2.64743 48 54 52
-1.80725 -0.357781 4.39203 46 52 53
-0.199301 -0.142535 1.78261 52 52 54
-0.376659 -0.132388 2.11949 0 0 0
-1.4655 -0.233342 4.16648 52 52 54
0.103549 -0.0401748 0.973473 0 0 0
-1.96444 -0.169378 4.55035 46 53 54
-1.3228 -0.133874 3.97898 1 0 0
-0.966018 -0.115846 3.42284 48 54 54
-1.83246 -0.136152 4.60844 0 0 0
-2.23534 -0.0554479 4.71261 0 0 0
-1.4054 -0.0344121 4.18299 0 0 0
-0.790005 -0.0260482 3.08256 0 0 0
-2.135 -0.00929569 4.84186 46 52 54
0.42081 0.00577529 0.297084 0 0 0
0.73098 -0.000538266 -1.44798 0 0 0
-0.0878468 -0.00473492 -4.53848 68 64 64
0.61455 0.00885121 0.452719 32 32 29
-0.54006 -0.0356015 -5.70461 2 0 0
-2.0105 0.0694796 4.82443 0 0 0
-2.40086 0.0813147 4.63898 42 46 48
-2.33024 0.141151 4.81632 0 0 0
0.231979 0.0616633 1.07158 2 2 2
0.536326 -0.160125 -3.31296 80 70 72
-2.16754 0.249764 5.09186 0 0 0
0.31541 -0.330826 -6.54599 4 2 0
0.201836 -0.130803 -2.68896 94 80 80
0.0494537 -0.163957 -3.23254 6 3 2
-1.98774 0.320614 4.96007 52 56 56
-1.90159 0.346175 5.12715 0 0 0
-0.260152 0.24955 3.28451 83 79 79
0.735776 -0.362895 -4.78052 83 80 79
0.633051 -0.354563 -4.72054 84 80 76
0.726867 -0.525342 -6.9509 4 0 0
0.380896 -0.532684 -6.90156 88 86 84
0.0314806 -0.539834 -6.81322 6 1 0
0.430906 -0.0545937 -0.927778 7 2 2
0.31375 -0.110982 -1.5917 96 96 90
0.818045 -0.511229 -4.9073 11 6 5
1.19835 -0.731198 -7.19324 7 7 5
0.635926 -0.779781 -7.33087 12 8 6
0.46053 -0.773637 -7.29189 12 8 6
0.627506 0.415776 3.53101 12 10 8
0.701534 0.19112 1.44431 102 101 97
0.678679 0.137343 0.942113 10 7 6
-0.936321 0.683233 5.28344 84 86 82
1.06025 -0.671362 -5.10204 12 10 7
0.779014 -0.663 -4.94844 96 92 88
-0.311372 0.917261 6.64728 12 10 6
0.772527 -1.10299 -7.9574 100 98 92
0.555713 -1.06323 -7.74353 102 96 92
0.341054 -1.13878 -8.03566 13 10 7
0.774391 0.828665 5.59876 108 100 98
-1.109 1.0625 6.62599 93 96 92
-1.70233 1.13157 6.8639 4 3 2
1.13388 -1.35874 -8.25677 98 96 90
-1.19485 1.31205 7.60711 9 4 3
0.311095 1.36497 7.82425 105 101 94
-1.78177 -0.828957 3.55565 53 56 58
-0.217428 -0.226504 -4.26222 2 5 4
-0.844073 0.940341 6.80875 92 92 90
1.3303 -1.36777 -8.26774 106 97 94
0.398214 -0.156473 0.286651 0 0 0
0.507672 -1.27864 3.80607 53 43 44
0.321875 -1.30567 3.93779 0 0 0
0.458363 -0.0557274 0.0294815 46 37 40
0.529944 0.0507251 -0.335194 47 42 42
-1.44226 -0.864332 3.64089 0 0 0
-0.529994 -0.55482 2.44361 0 0 0
-1.64312 -0.827101 3.73842 42 50 50
0.619418 0.201264 -1.21699 0 0 0
-1.82349 -0.677124 3.80994 0 0 0
-0.39817 -0.392111 2.18928 45 50 50
-1.92171 -0.492841 4.13733 46 52 54
-1.99284 -0.37002 4.3932 0 0 0
-1.83009 -0.234648 4.59715 0 0 0
-0.063447 -0.0641374 1.46788 0 0 0
-2.17179 -0.152976 4.40237 46 49 52
-1.23204 -0.0703943 3.78145 0 0 0
-1.82979 0.00305545 4.77864 52 52 54
-0.216805 0.00310307 -5.59019 68 64 64
-0.600551 -0.0398009 -6.1346 3 0 0
-2.23534 0.0966874 4.68813 0 0 0
0.104861 0.087989 1.72251 4 1 0
-2.381 0.268183 5.12726 46 49 50
-2.12282 0.374958 5.20336 50 52 55
-0.782657 0.493812 4.91585 2 4 2
-0.869444 0.79462 5.95413 8 8 6
-0.436226 1.11009 6.51396 103 98 92
-0.0841941 1.08479 6.1207 8 9 6
-0.143985 1.31799 7.46052 8 8 6
0.252822 1.0396 5.81806 9 11 8
-0.409191 -0.611331 2.139 44 50 52
-0.181547 -0.321546 1.69473 43 48 50
0.139894 -0.090511 0.88454 48 50 54
-1.28118 0.198578 4.21918 52 56 60
-1.06443 0.571673 4.98495 76 80 81
-0.067203 0.124735 2.03019 76 72 72
