1.20008 0.951739 4.69008 38 32 32
1.20098 0.551872 2.69017 44 34 31
1.22923 0.490094 2.38302 52 34 32
0.990757 0.405148 1.65912 128 128 128
-0.0176936 0.467524 1.64294 114 125 128
-1.61883 -1.35964 3.03488 0 0 0
-1.63988 -1.32275 3.09965 28 42 73
-1.67002 -1.27214 3.17384 0 0 0
1.42247 -0.579318 1.95229 12 13 14
1.50836 -0.626603 2.10945 8 10 20
0.657954 -0.361621 1.34949 0 0 6
1.29842 -0.793404 3.11318 31 56 96
0.553251 -0.586004 2.45451 62 106 128
0.608758 -0.526955 2.43076 128 128 128
1.3812 -0.419872 1.96765 36 32 32
0.0404607 -0.358393 1.70588 17 16 13
0.162974 -0.594535 3.04976 22 19 18
-0.16085 -0.326766 1.87014 20 19 16
-0.0816438 -0.332655 1.94215 20 18 15
0.520479 -0.655374 4.10255 128 128 128
1.15545 -0.418862 2.56547 128 128 128
0.295879 -0.364886 2.2799 124 128 128
1.16209 -0.498845 3.08774 128 128 128
0.035077 -0.328216 2.06334 18 18 16
0.314429 -0.365969 2.2928 20 22 20
0.313939 -0.348026 2.30333 126 128 128
-0.163665 -0.234887 1.88878 128 128 127
-0.0193862 -0.28347 2.43423 20 22 17
0.490572 0.135705 -1.2549 38 36 36
0.537005 -0.49511 4.32033 35 34 30
0.621191 -0.466077 3.95151 37 34 31
0.314658 -0.275585 2.30597 127 128 128
1.08228 -0.374834 3.16056 50 45 42
0.544269 -0.176516 1.50403 128 128 128
0.541552 -0.162275 1.37599 128 128 128
1.41526 -0.368396 3.11466 52 46 44
1.00457 -0.265603 2.22332 128 128 128
0.533672 -0.133431 1.11415 128 128 128
1.29595 -0.241412 2.02346 44 42 40
-0.151525 -0.220649 1.89998 128 128 124
-0.098728 -0.225109 1.95892 122 128 125
-0.0840591 -0.226396 1.96272 18 18 13
-0.0307362 -0.194636 1.67337 21 20 18
0.0493912 -0.237017 2.0912 24 24 19
0.116213 -0.242535 2.15042 124 128 123
0.18262 -0.247709 2.20753 24 24 24
0.295372 -0.25622 2.30371 120 128 128
1.07956 -0.243927 2.17669 128 128 128
1.17925 -0.242311 3.19313 128 128 128
0.183363 -0.173065 2.21166 15 16 14
0.929748 -0.176891 2.2748 128 128 128
0.0493804 -0.161166 2.09859 18 17 16
-0.0857585 -0.148716 1.97893 14 16 14
-0.177276 -0.174416 2.35172 128 128 126
0.51768 -0.280292 3.9933 26 24 22
0.129714 -0.178134 2.55087 116 128 127
1.06589 -0.182015 2.63839 128 128 128
1.21516 -0.150306 2.0768 44 38 35
-0.101428 -0.131559 1.97631 12 12 9
-0.0867114 -0.133103 1.98051 126 128 128
0.314663 -0.0929803 2.33052 128 128 128
0.97671 -0.0978983 2.68988 45 38 32
1.20932 -0.107112 3.23767 128 128 128
0.314294 -0.0737479 2.33984 19 17 14
1.17962 -0.0805782 2.61403 128 128 128
0.10813 -0.0375607 1.6082 122 128 124
0.047234 -0.0503052 2.12166 15 13 9
0.0321858 -0.050131 2.1122 126 128 128
-0.170051 -0.0317887 1.93306 14 13 10
-0.157075 -0.0315785 1.94136 122 128 128
1.28928 -0.0309948 2.02296 128 128 128
0.314692 -0.00095849 2.34038 22 21 19
0.31449 0.0186832 2.34903 128 128 128
0.295729 0.0201131 2.33707 23 25 22
0.0319929 0.0274899 2.11592 117 128 124
0.114861 0.0376027 2.19101 20 18 16
0.586018 0.0399674 1.23977 128 128 128
-0.037032 0.0520109 2.06706 124 128 124
1.13377 0.0500237 2.12937 57 50 46
-0.0905703 0.0562712 2.01229 124 128 126
-0.159052 0.0629715 1.95165 20 16 15
1.28581 0.0657003 2.02099 56 44 42
0.315008 0.0910501 2.34874 128 128 128
0.231218 0.100115 2.28647 124 128 126
0.248963 0.117815 2.30683 128 128 128
0.107496 0.124042 2.18075 12 14 12
0.189005 0.11219 1.98117 16 14 12
0.0987743 0.114684 2.18277 123 128 126
1.08586 0.155624 2.6742 128 128 128
0.114618 0.131979 2.20238 128 128 124
0.0981039 0.133454 2.19072 13 12 9
-0.0218511 0.128415 2.08305 9 12 10
-0.10613 0.138699 2.02184 12 10 9
1.29648 0.131569 2.02077 128 128 128
-0.0379845 0.147782 2.08033 8 12 10
-0.172334 0.174815 2.79968 14 11 10
-0.106106 0.153727 2.02385 118 126 122
-0.175209 0.177866 2.37339 120 128 122
1.3345 0.155171 1.98534 128 128 128
0.605328 0.223081 2.49598 128 128 128
1.27484 0.325379 2.0171 80 116 128
0.991281 0.900406 4.67887 128 128 128
-0.119203 0.385564 2.0344 59 90 110
-0.0484656 -0.920263 -4.63381 29 24 26
0.718145 0.364869 1.77482 31 27 27
0.982174 0.811193 4.00223 34 28 28
1.23541 0.48982 2.38487 42 32 32
0.0359413 0.455574 1.92377 128 128 128
0.920989 0.366992 1.49629 128 128 128
-1.59152 -1.36869 3.05467 0 0 0
-1.64429 -1.31163 3.12638 0 0 0
-1.67267 -1.29396 3.14001 45 65 90
-1.66837 -1.27411 3.17158 0 0 0
1.62708 -1.43981 3.95625 0 1 4
-1.70327 -1.17005 3.30204 55 80 106
1.64248 -1.32061 4.02881 4 10 26
-0.303237 -0.453436 1.6804 122 128 124
1.20881 -0.520004 2.08472 68 110 128
1.12994 -0.507119 2.12718 128 128 128
0.61091 -0.524968 2.43117 128 128 128
-0.160199 -0.404298 1.85994 14 14 13
0.456386 -0.50993 2.39882 120 128 128
1.38084 -0.419139 1.96879 36 34 32
0.224437 -0.500388 2.58181 20 19 18
0.550109 -0.293955 1.50338 28 26 25
0.35895 -0.442088 2.32987 23 20 20
0.716746 -0.451748 2.3819 32 30 30
1.38126 -0.335281 1.97458 45 36 34
1.14132 -0.352698 2.12809 128 128 128
0.516496 -0.659701 4.10419 128 128 128
0.948405 -0.3142 1.91502 128 128 128
1.40094 -0.504952 3.06209 128 128 128
1.29813 -0.324576 2.02438 44 37 35
0.521776 -0.132206 0.910307 128 128 128
1.06345 -0.339023 2.17329 128 128 128
0.767561 -0.355692 2.35073 128 128 128
1.15649 -0.297656 2.1282 128 128 128
0.487434 -0.163489 1.3821 38 34 32
0.485657 -0.147751 1.24033 128 128 128
0.485005 -0.144422 1.21067 36 34 30
0.504038 -0.139057 1.16337 40 37 33
1.00529 -0.266462 2.22163 128 128 128
1.14087 -0.255709 2.13247 48 44 42
1.21852 -0.249575 2.08168 128 128 128
-0.202934 -0.326573 2.90542 126 128 128
0.457183 0.439465 -3.95716 128 128 128
0.455706 0.448736 -4.04158 34 32 31
0.591003 -0.278889 2.46469 57 97 128
0.517113 -0.227436 1.92702 37 36 32
0.530089 -0.416906 3.61953 128 128 128
0.53095 -0.433052 3.76642 34 32 30
0.930147 -0.252609 2.26316 128 128 128
1.06254 -0.242957 2.17712 52 44 44
1.29511 -0.225698 2.02527 128 128 128
0.546507 -0.311045 3.92138 128 128 128
0.48083 -0.110685 1.36367 128 128 128
0.479871 -0.0988124 1.22636 26 26 22
0.599622 -0.107815 1.34991 34 28 25
-0.0914496 -0.222476 2.91276 12 16 14
-0.230899 -0.261869 3.47624 15 16 14
1.2748 -0.188702 2.55908 128 128 128
-0.221484 -0.135708 1.85228 12 12 12
0.453769 -0.110286 1.43168 128 128 128
1.21632 -0.151804 2.0831 43 38 34
0.857004 -0.164369 2.31358 128 128 128
0.45967 -0.0815469 1.15049 28 23 22
1.06105 -0.147181 2.18008 128 128 128
1.37046 -0.136781 1.96842 46 38 36
1.3101 -0.125809 2.0251 128 128 128
0.48149 -0.0537173 1.37121 28 24 19
0.46025 -0.0417059 1.15582 30 24 19
0.713846 -0.0854368 2.40589 42 38 33
0.467113 -0.0437135 1.29442 30 26 22
-0.0852813 -0.0925937 2.89209 124 128 122
-0.186555 -0.0846245 2.85704 12 13 10
1.45212 -0.0631574 3.18649 52 40 36
1.3055 -0.0457678 2.02223 128 128 128
1.28889 -0.0300775 2.02446 128 128 128
0.315971 -0.00218651 2.33902 21 20 18
1.16652 0.0408023 2.60546 57 51 46
1.07541 0.0266712 2.17981 128 128 128
1.05768 0.0430849 2.18323 128 128 128
-0.179366 0.071605 2.83703 17 17 15
1.19971 0.0506562 2.02344 61 47 46
0.784633 0.0874199 2.37486 48 41 34
0.316311 0.111612 2.34948 14 17 16
-0.000165973 0.149861 2.85531 119 128 127
0.51245 0.0706636 1.16906 36 31 27
1.14812 0.130189 2.12719 128 128 128
-0.0879216 0.175583 2.85678 123 128 127
1.0711 0.138928 2.17403 128 128 128
1.2969 0.129987 2.01929 128 128 128
0.0263178 0.173407 2.86201 126 128 126
0.000344558 0.176522 2.85751 14 15 10
-0.162106 0.200384 3.23171 16 14 10
0.713697 0.171399 2.42502 42 35 30
1.13053 0.145626 2.12979 128 128 128
1.37221 0.19212 2.54195 56 48 46
0.360611 0.178113 2.40015 15 16 14
1.33429 0.15489 1.98332 128 128 128
-0.231464 0.166909 1.90733 10 9 6
0.606239 0.222038 2.49532 128 128 128
0.0471875 0.215645 2.14897 8 10 8
0.922478 0.264662 2.27962 128 128 128
-0.177937 0.242748 1.97712 10 8 7
1.29357 0.243293 2.01428 55 44 40
-0.233019 0.248132 1.91955 7 8 8
-0.341552 0.334023 1.84058 114 118 109
1.095 0.898419 4.68307 128 128 128
0.984892 0.902263 4.68722 128 128 128
-0.00435588 -0.833495 -4.19082 34 28 26
-0.118347 0.384496 2.03391 57 88 108
-0.0491601 -0.914767 -4.60693 28 24 26
0.662166 0.27246 1.31291 32 29 28
1.17333 0.951542 4.68015 28 30 30
0.338629 -0.273981 -1.41446 30 25 26
1.15171 1.00565 4.72901 128 128 128
1.11627 0.395162 1.94849 97 92 98
1.03687 1.01091 4.73453 128 128 128
0.992648 0.499442 2.14497 128 128 128
0.0372064 0.455486 1.92062 128 128 128
-1.57471 -1.35327 3.02672 0 0 0
1.63503 -1.43154 3.95646 0 0 0
1.73207 -1.33288 4.03968 6 4 0
1.25482 -0.52388 1.77705 3 7 14
0.563424 -0.580182 2.45362 60 104 128
1.13391 -0.503078 2.13086 128 128 128
0.615912 -0.520674 2.43279 128 128 128
0.451108 -0.506263 2.40053 124 128 128
-0.0349625 -0.496118 2.96812 19 20 18
0.54443 -0.447452 2.69609 128 128 128
0.156257 0.429626 -2.68663 128 128 128
0.487697 -0.16474 1.39426 40 32 32
1.36082 -0.239624 1.99479 128 128 128
0.587179 -0.2777 2.46795 60 98 128
0.462964 -0.205876 2.53104 32 26 22
0.329396 -0.0720071 1.06586 128 128 128
1.36576 -0.0209024 1.97052 44 36 34
0.510658 0.00679272 1.15538 37 32 28
-0.251144 0.149582 4.00454 121 128 124
0.322721 0.173898 2.35827 18 15 12
-0.101566 0.195588 2.82903 118 128 124
1.33533 0.154918 1.98595 128 128 128
-0.257807 0.316905 1.90521 122 126 118
-0.337057 0.327084 1.84343 114 123 116
-0.114389 0.381876 2.03343 50 84 102
0.0265179 -0.785064 -3.94525 26 26 26
-0.0401049 -0.889406 -4.47683 28 26 25
1.076 0.976813 4.82474 30 28 28
0.483771 -0.0280323 -0.186865 29 27 28
1.01873 0.879713 4.33901 32 29 28
0.336231 -0.277186 -1.43212 31 24 26
0.673975 -0.640501 3.93871 128 128 128
1.64305 -1.42754 3.96571 0 0 3
1.71548 -1.43548 3.98692 0 0 0
1.72254 -1.34148 4.03122 8 7 0
1.52747 -1.23968 3.92473 1 1 4
0.622248 -0.515055 2.4345 128 128 128
0.444729 -0.501247 2.40171 128 128 128
0.412346 0.710133 -4.28469 22 26 23
0.341555 0.69759 -4.21266 27 26 25
-0.0893992 -0.448908 2.95564 118 128 128
0.480652 -0.118899 0.981447 36 34 32
0.612007 -0.125456 1.03972 36 32 28
0.582761 -0.274348 2.46811 65 105 128
0.703689 0.226527 -2.2596 26 26 25
0.458492 0.420985 -3.79823 35 30 30
0.480438 0.199423 -1.85967 128 128 128
0.60915 -0.334117 4.03489 30 26 26
0.460328 -0.113592 1.32384 128 128 128
0.468981 -0.211873 2.53191 25 29 23
0.406461 0.289745 -3.32225 128 128 128
0.683423 0.148033 -2.04044 28 22 20
0.612666 -0.0779339 1.04256 128 128 128
1.36977 -0.144225 1.9811 42 32 32
1.34091 -0.139177 2.00008 40 35 35
0.510005 -0.096425 1.24294 128 128 128
0.48192 0.116523 -1.79377 28 26 26
0.499198 -0.0104632 0.0268288 128 128 128
0.461941 0.244387 -3.70966 128 128 128
0.492436 -0.0510165 1.01179 27 22 19
0.630814 -0.0474179 1.07897 30 24 19
-0.0720303 -0.10678 2.8921 121 128 128
0.460525 -0.0268701 1.19831 34 28 22
0.473587 -0.00404813 1.01492 32 32 28
1.36122 -0.0166823 1.97042 44 42 36
0.449665 0.015162 1.18254 34 35 28
-0.117736 0.0782716 2.86424 17 18 14
0.0874124 0.115347 2.51038 126 128 126
0.447529 0.109283 1.25004 27 24 16
1.33484 0.155117 1.98404 128 128 128
0.617089 0.212666 2.49729 128 128 128
0.496669 0.10556 1.1283 28 28 22
1.2148 0.281864 2.60717 128 128 128
0.491188 0.0998763 0.925981 34 23 22
1.02384 0.240632 2.22219 128 128 128
0.922666 0.26577 2.27425 128 128 128
-0.224768 0.237776 1.91965 7 7 6
-0.262188 0.31645 1.91348 124 126 116
1.89111 -1.40211 4.04271 1 5 21
0.204822 -0.409388 2.22359 18 18 17
0.564828 -0.402756 2.40504 50 92 128
0.586656 -0.397073 4.16893 128 128 128
0.517348 -0.148155 1.52829 128 128 128
0.511862 -0.076321 1.38429 128 128 128
0.500774 -0.0407203 0.849601 26 20 18
0.575627 -0.199027 3.71633 27 22 19
0.102179 -0.00486303 2.52196 20 17 16
1.2096 0.0818824 2.54058 128 128 128
0.469758 0.0496317 1.12147 33 32 27
0.338806 0.153354 2.36373 19 15 14
0.470145 0.0816122 1.12496 128 128 128
0.209583 0.167119 2.25251 12 12 10
0.0764783 0.183394 2.14588 11 10 9
0.279276 0.215033 2.32274 126 128 128
0.0600806 0.419264 1.87862 90 105 128
0.491677 -0.025272 0.963224 28 24 22
0.628546 0.0292915 1.02355 128 128 128
1.65176 -1.41473 4.11332 28 35 48
1.48358 -1.40536 4.13439 45 60 70
1.8324 -1.32789 3.85962 0 3 20
1.52116 -1.25747 4.41646 62 92 128
1.71143 -1.04795 3.60477 14 26 32
0.272872 -0.456959 2.26263 126 128 128
0.64991 -0.49599 2.44498 128 128 128
-0.185889 -0.360323 1.80937 11 13 10
0.418788 -0.474938 2.37654 128 128 128
0.250053 0.439967 -2.30424 76 98 106
0.227197 -0.426187 2.40754 72 78 76
0.882409 -0.411157 2.2572 35 28 29
0.342741 -0.40198 2.29561 24 22 19
0.868988 -0.433368 2.46021 128 122 120
0.066593 -0.270832 1.92236 65 74 70
1.03282 -0.330052 2.40446 128 128 128
0.562634 -0.114274 1.22249 30 32 28
0.718493 -0.145769 2.49721 128 128 128
0.416661 0.116673 -2.97447 128 128 128
1.28794 -0.0979707 3.29629 128 128 128
0.718697 0.0458382 2.50572 128 128 128
-0.0013422 0.0842998 1.92752 72 74 71
0.642286 0.19328 2.4951 128 128 128
0.277764 0.214093 2.33128 128 128 128
0.526833 0.278836 2.51956 20 52 96
0.649517 -0.500718 2.39235 128 128 128
0.950163 -0.452665 2.20192 128 128 128
0.691003 -0.32649 2.40782 128 128 128
0.692993 -0.139395 2.4042 128 128 128
0.68713 0.0449148 2.45534 128 128 128
0.637289 0.179651 2.45409 128 128 128
0.957399 -0.462743 2.2375 128 128 128
0.688164 -0.32681 2.42039 128 128 128
0.427576 0.0948597 -2.48754 128 128 128
